-0.0079246574 0.1294757833 0.2741256404
0.0160058328 -0.0293680732 0.2325504456
-0.0771645368 0.0817199975 0.2938490378
0.0719584220 0.0884597604 0.1476347569
-0.0120278996 0.0327039348 0.3114315492
0.0068616108 0.1415312953 0.2011722562
0.0815951028 0.0402919203 0.2608567440
-0.1013588167 0.1170006228 0.2131030058
0.0618164557 -0.0044590895 0.1762592629
-0.0728872226 -0.0115864414 0.2483228035
-0.0808565030 0.1273454952 0.1771992463
-0.0640126645 -0.0198090371 0.2157013376
0.0732929243 0.1108200881 0.2184194081
0.0322250274 0.0932269006 0.3024390381
-0.0811203288 0.0263492347 0.2867424323
-0.0351605692 0.1222087168 0.2804212921
-0.1255037212 0.0442567551 0.2312238192
0.0058761700 0.1290404560 0.1409757694
-0.0702775229 -0.0197818430 0.1469340534
0.0455790109 -0.0104669026 0.2639750405
-0.0095048760 0.0041005024 0.2993965463
0.0886023880 0.0239511200 0.2116229250
-0.0081535611 -0.0186772497 0.2706543072
-0.0147572986 0.1068255817 0.2970474315
-0.0292530699 0.1391347008 0.2487949924
-0.1062607414 0.0585824315 0.2770381478
0.0159081392 -0.0122766055 0.1336298694
-0.0319749299 0.1424634284 0.1809143821
-0.0269524772 -0.0297184222 0.2215008465
-0.1084443687 0.0964936675 0.2530580434
0.0604758213 0.0969798416 0.2759162079
0.0377610140 0.0420817756 0.3037212386
0.0538086072 -0.0169095106 0.2044598391
-0.0592548949 0.1104892184 0.2811448978
-0.0572739767 0.1330702245 0.1445269511
-0.0398915086 0.0533955489 0.3117795247
0.0526336941 0.1178553595 0.1598394413
0.0167433837 0.1360591572 0.2605073365
0.0875718568 0.0667334436 0.2443279007
0.0607197263 0.1140404270 0.2595720061
0.0616494267 0.0744291193 0.1205824675
0.0470804391 0.0136640258 0.2893365543
0.0779684069 0.0989531840 0.1819067585
-0.0298663219 -0.0042227484 0.2836133893
0.0642497488 -0.0074517078 0.2366086227
-0.0041125495 0.1426569584 0.2352873634
0.0399132845 -0.0146331576 0.1582116271
0.0644607067 0.0082204759 0.1509993167
-0.0842272651 0.0553499609 0.2949829990
-0.0696585866 -0.0216926607 0.1844030967
-0.0492837481 0.1382037351 0.2249435440
0.0547973964 0.0703068582 0.2999438260
-0.0070786988 0.0632500905 0.3164355641
0.0230363009 0.1394721432 0.2274413395
-0.0556048034 0.0122785694 0.2900563566
-0.0316795329 -0.0247868603 0.2527259352
0.0889021238 0.0852928184 0.2153402067
0.0390639944 0.1187797263 0.2746963152
-0.0528986520 -0.0127144393 0.2661884474
-0.0448053354 0.0974268728 0.2985317196
-0.0776895350 0.1277614974 0.2370949837
-0.0552616820 0.1291186974 0.2604092003
0.0284974167 0.1173644012 0.1338011517
-0.0178300232 0.1428431677 0.2103484210
0.0603761810 0.0414176648 0.2893047422
-0.0894876522 0.0959300556 0.2752134090
0.0196092781 -0.0036241049 0.2915670562
0.0299904854 -0.0267795154 0.2129996859
0.0120719586 0.1160409046 0.2883480428
0.0802393250 0.0152416999 0.2384147240
0.0785624406 0.0637507500 0.1487933831
-0.0013974915 -0.0331381724 0.2149110960
-0.0724523998 0.0049190154 0.2726412078
0.0749162505 0.0699729320 0.2707311187
0.0165262641 0.0200897942 0.3060100399
0.0240160168 0.0695434226 0.3124148037
0.0200071954 -0.0227224123 0.2589152449
0.0882002515 0.0713725173 0.1792899427
-0.0824978733 0.1098930398 0.2682305753
-0.1188269430 0.0632436139 0.2558620402
-0.1220756096 0.0849897263 0.2320682826
0.0530525410 0.1281833914 0.2243325912
-0.1019252457 0.0346183026 0.2723997412
-0.0521173695 0.1373813429 0.1894778806
-0.0343125559 0.0219586189 0.3023954523
0.0609911701 0.1221607309 0.1899312965
-0.0612386179 0.0392472893 0.3021404094
0.0344716340 0.1351621528 0.1925873401
-0.0510740529 -0.0237193093 0.2310806864
0.0681431866 0.0112028210 0.2646473268
0.0752781185 0.0014889696 0.2152313574
0.0155057052 -0.0324230806 0.1807048340
0.0938037469 0.0570448187 0.2146486979
-0.0041439389 -0.0300261856 0.2427708804
-0.0597378627 0.0691721028 0.3060538556
0.0392846800 -0.0201011883 0.1789372681
0.0031327985 0.0936656645 0.3124478356
-0.0066525384 -0.0125597269 0.2779680208
0.0620125628 0.1178666345 0.2504668142
0.0419540606 -0.0214643691 0.2353538723
-0.0362679678 -0.0280493706 0.1970048865
-0.0493141848 -0.0276238113 0.1753110065
-0.0237238097 0.0826091904 0.3088263113
0.0129928024 0.0451466883 0.3127886679
-0.0248224494 0.1384759974 0.1516857336
-0.0940726615 0.0099913075 0.2627266675
0.0752438220 0.0331672528 0.1495122854
0.0584418822 0.1141912048 0.1640317982
0.0901056910 0.0407541464 0.2351169989
0.0425244731 0.0961545518 0.1105924536
0.0865220896 0.0396895926 0.1786750740
-0.0792939410 0.1289224615 0.2019320212
-0.1051793501 0.1042263892 0.2515738930
0.0649584696 0.0496092393 0.1233312779
-0.0308731545 0.1399258838 0.2438228319
-0.0798509995 0.1085585050 0.2724960685
-0.0729917813 0.0900835447 0.2924021847
-0.0125207747 -0.0335835850 0.1859775152
0.0265014667 0.1275546485 0.1568129428
0.0764763699 0.1037236928 0.2342832618
-0.0970266094 0.0857416281 0.2786242178
-0.1312056572 0.0645231594 0.2194082622
0.0749329499 -0.0002550449 0.2075318591
0.0300384896 -0.0274966083 0.2071823227
-0.0369293504 -0.0250549002 0.1543002227
-0.1036139096 0.0635756686 0.2802994039
-0.0187205684 -0.0132839947 0.2725281041
-0.0104196591 0.1341303212 0.2689437054
